# .PCD v0.7 - Point Cloud Data file format
VERSION 0.7
FIELDS x y z
SIZE 4 4 4
TYPE F F F
COUNT 1 1 1
WIDTH 1531
HEIGHT 1
VIEWPOINT 0 0 0 1 0 0 0
POINTS 1531
DATA ascii
-9.5321865 55.575256 0.71512455
25.702257 47.298645 16.69722
-47.133251 -8.399683 29.744289
-10.916328 -20.285553 51.437458
-3.7685723 44.637623 -34.200417
2.1883445 40.845253 -38.798634
1.7212558 52.113598 21.34626
-53.789223 -5.9413571 -15.724174
-33.993244 23.146624 -38.541183
14.487973 -27.612022 46.971149
3.9916272 33.256889 -45.331245
-25.869917 -43.790924 24.289089
49.999252 22.764614 12.622411
38.573475 36.892921 -18.145395
-14.151976 -7.5575461 -54.026451
56.198742 -1.245803 4.0854492
-36.490547 -41.06599 12.549376
-31.845942 -45.099293 -11.353806
-39.593693 0.8815226 40.120678
-28.547832 -36.718639 31.850065
-41.83353 5.6984119 37.342434
-49.320602 3.0618095 -27.104496
22.250437 41.408401 31.154669
-42.968597 32.702595 -16.169647
7.8341713 44.255348 33.993156
-15.062497 10.609718 -53.26302
-29.85253 30.613258 36.700035
-39.675133 39.355251 7.3138103
7.2475572 53.77536 15.234477
3.5895026 -15.298991 54.155052
-2.417778 -49.853645 26.218328
-37.060184 18.841122 -38.05101
30.30022 47.509678 -1.8426071
3.7569244 25.383657 50.184357
-39.60545 15.732366 36.898914
46.534771 -12.366653 -29.274738
-6.1151676 -2.3825202 55.979034
38.661217 -22.889324 34.051144
40.538971 39.149082 -0.91700405
12.953 -51.252415 19.543892
43.165237 19.525551 -30.506788
-45.260071 -28.678068 17.529541
33.364872 -41.460907 18.586889
5.7428222 -7.8508182 -55.520172
37.810276 -8.9130964 -40.848331
26.96493 22.22777 -44.214355
0.92810345 17.21423 -53.656208
-23.093287 11.247114 50.191292
-33.826721 20.193752 -40.309837
-3.9933081 28.441648 -48.480972
-15.943209 -43.828014 -31.637897
55.030739 4.2761245 11.500414
-36.636295 -8.1185188 42.077286
-7.9451203 37.732353 -41.120346
-9.1494207 -51.992615 19.740738
13.229999 -44.390015 -32.098557
52.126541 -3.7945178 21.040388
27.231422 23.568722 -43.351974
16.657583 52.316925 12.876813
-20.727829 39.640976 -34.344185
-23.699802 -48.804688 -15.246077
46.428444 -2.6576025 -31.835751
-14.387069 -51.472366 17.885132
11.256352 37.207813 40.795956
-27.300926 16.877472 46.333313
-55.419296 -9.9657545 2.7610004
-46.194195 3.3659461 -32.167126
-48.902847 -26.143534 -10.118397
-53.749317 -16.968746 1.6054496
17.354202 -19.785156 49.855831
42.113297 -23.240057 29.405499
-13.140148 -10.558543 -53.809635
24.858934 -40.751369 29.988842
4.0439544 36.654064 -42.642841
-56.073376 -3.7749944 -4.0598388
-40.785049 1.2323103 -38.884319
-11.910654 -25.665031 48.757416
-33.406391 45.43082 0.080490261
-25.14555 43.815876 25.051134
28.745562 -28.085606 -39.501804
-37.799976 4.5609918 41.582916
12.408448 17.267286 -52.202385
-55.805004 -4.9522243 -5.8653584
7.868547 6.7097549 -55.408264
-24.028053 -26.095337 -43.785286
-29.087137 26.361378 -40.476673
1.6931947 55.052948 -11.96615
-44.678699 -34.305794 -1.4766581
-45.157448 -32.572681 8.6581202
2.4232523 50.698746 24.500626
42.937328 12.310481 -34.373291
-0.95620042 -54.836094 -13.053981
5.20362 -55.386478 9.1168633
-54.314251 -3.7992315 -14.631732
-34.380852 26.404726 -36.010674
-26.079521 2.7674 -49.919262
18.861828 -52.705643 -6.4851565
-28.397524 23.803379 42.454708
5.7335405 -52.691341 -19.197855
42.897026 19.741077 30.75832
4.7099481 -15.456835 54.018982
-37.474762 -15.925435 -38.958416
-2.4925704 -54.495438 14.143877
4.3099017 -1.3854642 -56.193863
37.201538 -25.53536 33.767532
-53.688019 -10.554805 13.509251
4.202271 -3.5752246 -56.098434
-52.22007 -7.6664228 19.793972
-7.3057513 -30.977699 46.511772
-1.8478889 -33.3937 45.380032
-17.532486 48.272289 23.228765
-29.197426 46.922295 -11.151335
9.4344683 6.4328666 -55.209358
-21.795004 50.9515 10.457101
4.4211106 -46.039337 32.248981
-52.39373 13.130537 -15.956241
19.16147 -47.442219 23.632141
-11.20209 36.09964 -41.792057
-12.162229 54.538074 7.3475389
22.374908 39.860088 -32.962025
-45.653065 -31.702263 9.3159714
-39.395592 -30.060774 26.883795
22.9706 -19.714743 -47.554005
-30.346943 -16.433941 -44.556374
-7.5589786 -44.129581 -34.217606
47.275627 -30.655838 1.7793009
53.1632 12.206787 14.23162
-38.241249 -3.9518545 41.269547
42.110302 37.161137 4.7788501
-25.827301 45.772003 -20.400343
5.7424803 -19.072437 -52.749271
-50.324665 13.026943 21.758276
9.1699667 32.197018 -45.342136
6.8654327 11.023428 54.863186
-40.116634 -19.789011 -34.283253
-33.488194 -44.405685 -9.1751137
6.8809857 -25.885098 -49.616013
29.505539 -4.2494941 -47.849026
-54.515842 -8.8067141 -11.392176
4.2127938 -6.9477429 55.789097
-44.524242 31.238178 14.828227
2.3494029 35.614548 43.624279
37.725128 -38.844116 15.713242
-24.442196 -47.414295 18.202555
32.005527 -35.526302 -29.882872
44.166248 34.32259 6.9478679
-27.572922 -33.477676 -35.998631
-6.5055003 -55.976559 -0.53114563
-50.352051 -16.364933 19.287607
-31.876606 -32.338245 -33.428272
-19.547098 52.673576 -4.4441152
-0.49107796 56.267292 3.0328364
36.705631 -27.257782 32.93755
4.3548613 23.441067 -51.072754
-50.604004 24.789196 1.1777973
47.408722 -30.21253 4.089644
-15.783649 -17.742455 51.129017
39.998112 -6.1201105 39.231422
51.306297 -23.36338 1.1757851
-10.185738 -30.12697 -46.529915
49.17672 -2.7324009 27.304293
-1.5780876 -6.0849566 56.003426
-7.2087855 36.993809 -41.887844
-14.799942 -23.953907 -48.817879
-13.781338 50.672161 -20.469936
-37.716045 -4.0600076 -41.699306
-49.886505 5.9684591 25.525221
-11.619102 -25.079945 -49.135342
42.132008 -37.166122 -4.7756987
35.903481 -16.247234 -40.294304
49.330296 -17.18231 21.044046
34.844578 39.629478 -19.910532
11.59635 53.458664 -13.600872
-6.4475813 29.764038 47.456646
34.306206 32.118698 -31.100037
7.8450308 -44.037029 34.31168
-5.7482071 55.446644 -8.3506851
-48.354847 -28.701065 -3.9085622
-3.3295586 -24.418024 50.695545
11.738552 -42.257336 35.420353
20.979912 -38.194427 -35.747932
-46.805836 5.8416662 -30.84219
14.275716 48.8699 -24.190405
37.74173 -36.385223 -20.714108
23.021214 -3.2546537 -51.348934
-12.043388 -7.6398063 -54.548958
-37.372341 10.320951 40.912636
17.794378 -25.572958 -46.980114
-0.84856206 -39.119484 40.574562
49.569012 25.963102 -6.6563334
-5.8711529 -50.442131 -24.457203
-42.343742 -35.740456 -10.396839
-9.2600298 -21.851337 51.143894
-41.820316 35.842602 11.988424
44.886868 31.13855 13.932539
-33.940331 27.133001 -35.901299
-49.437553 -21.512589 16.336809
38.245003 9.1088314 -40.373322
-6.2935185 55.435345 -8.0507383
-20.067501 52.286098 6.5608726
-54.246719 -10.778378 -10.82292
39.58115 8.4539785 -39.22641
55.420105 3.279763 9.7143517
-52.314247 20.99963 0.42730778
-25.576849 -16.291716 47.500664
7.294466 -45.24604 -32.820591
24.753996 37.919945 33.558784
-16.615679 43.077675 32.330517
18.727903 30.417662 43.604523
31.238972 -13.798428 -44.82494
-20.958115 -51.93824 6.2509956
-35.676899 4.0860009 -43.452656
-0.59179235 22.985083 51.469669
54.718948 -13.374369 1.7243673
-42.112801 33.092972 17.563389
42.683445 -1.0797268 -36.774349
50.961578 18.395744 -15.51775
-42.299458 -7.8542695 36.457664
-9.1939955 35.967609 -42.38192
-26.967175 20.556301 -45.04681
-49.927212 19.021368 -17.901598
34.060719 -44.30827 7.3543081
5.2456837 45.433083 32.899635
-25.095324 5.180439 50.192966
-22.720875 45.111919 25.021126
3.1149209 40.115692 39.466373
16.404741 2.0662141 -53.900593
21.498966 -34.193157 39.347565
-50.414062 13.23737 21.42799
-8.5070839 -48.458431 -27.484606
50.393562 -3.0821495 -25.055832
-37.310921 32.953773 -26.447088
30.903913 -22.486971 -41.404373
-5.3762274 14.433656 -54.216686
0.78491133 36.520386 42.95306
-32.118229 6.6624146 -45.831848
-5.2006426 -3.7703154 55.999676
-46.166435 -25.732187 19.544394
0.92306042 -26.714834 -49.618351
49.798698 -7.5774355 -25.25909
33.896004 13.6733 42.900829
6.3927646 -24.312017 -50.44521
27.606997 -41.660618 -26.050295
-7.4084029 49.343407 -26.233082
-34.239277 40.394188 -19.306965
-33.391785 41.210663 19.116127
50.381172 12.024012 -22.226433
-43.024807 -36.380085 0.09250471
19.817068 -50.53677 15.192949
7.0872006 -37.512238 -41.486359
54.962891 -9.1741629 -8.0329437
-33.891838 34.839066 28.51425
21.673914 1.163137 52.020947
20.14456 -47.071083 23.551598
-34.905468 -43.269077 9.3057985
4.4095855 3.5511758 -56.075436
15.047672 -13.0071 52.746475
30.822361 -6.9792891 -46.669098
22.638994 -41.725605 -30.362137
50.289364 -25.397055 2.2674851
31.024841 -46.442112 -7.5300598
17.802286 -45.294659 28.431044
17.343143 10.491207 52.580666
-47.340153 -0.16695783 -30.63838
-44.946289 12.439521 31.667576
25.295162 22.448944 -45.097576
-56.352299 -1.0431501 0.80028498
29.165396 -47.304226 -9.5227871
-54.007515 13.197172 -8.8994093
-18.282595 -52.898952 -6.5633464
-15.967985 6.817153 53.615444
-50.500355 15.388306 -19.694218
46.165985 -27.776188 16.573709
-2.4991381 41.420399 38.169533
-23.24914 -49.488579 -13.681264
6.7866464 -55.000347 10.236382
-5.3277116 29.108591 -47.934887
42.286488 -5.836195 -36.792126
-9.6510162 32.999702 44.67337
-23.577795 49.719501 -12.253288
31.819616 38.107742 26.679945
32.147148 -43.908455 -14.630078
-12.720731 6.9453335 -54.473312
-45.120644 12.184572 31.509676
-55.831699 4.5049663 -6.3298364
1.7543595 -5.7474375 -56.05862
35.553307 -10.638225 -42.418911
27.324766 -9.1146507 -48.443943
-2.7641952 -56.217037 2.8111312
0.38687482 -30.751493 47.249405
-40.209034 -37.876495 11.269667
30.576824 -23.495487 -41.098755
-5.7584805 -10.866449 55.008179
-28.067457 -34.490147 -34.615005
52.125393 21.200583 -2.991416
1.7073468 15.491741 -54.158478
-13.445984 -41.144966 -36.081249
-44.828575 33.956085 3.7719908
-33.576736 14.544244 42.869282
20.274361 -30.454115 42.894676
48.558411 -17.887434 22.246405
50.044395 24.62051 -8.2042437
-34.76284 19.865488 39.6712
26.538464 49.722923 1.2288469
55.123222 7.344451 9.2905064
30.171329 39.506947 26.596294
4.2275448 25.837433 49.912415
-36.110989 -42.857193 6.1050782
-44.157677 17.193476 -30.515245
39.304688 -36.743423 -16.804619
12.545665 16.418013 -52.437374
49.404583 -13.012735 23.702309
17.443478 -13.318466 -51.928795
24.229443 -49.963299 9.7250481
27.658249 -12.657109 47.456272
23.671659 50.986576 -4.0139413
7.228653 2.0229852 55.856426
-18.46188 28.150579 45.179569
-28.466934 36.708294 31.92522
-48.260254 -26.215757 -12.832469
30.880444 -4.1212921 -46.974697
-49.193897 11.167533 25.150013
-11.282425 -27.653606 -47.79525
-0.49746233 18.219337 -53.320675
-27.807762 -26.40106 41.312447
-28.659519 33.142834 35.482365
42.50528 -36.536465 -5.8991776
-13.339551 -41.248585 -36.002159
-17.233347 33.000336 42.286362
54.035736 -10.670846 -11.622241
13.520308 42.677383 34.203285
-40.359272 12.465817 -37.324135
22.698174 -47.87085 -19.216972
27.549164 -17.948925 45.798824
54.553398 5.3078485 -13.099379
3.9515629 -20.953663 52.17524
42.093601 -31.223846 20.748623
8.9373665 -20.981215 51.550667
-3.1424019 -55.577522 -8.8189354
9.6716614 -29.615189 46.978264
13.079691 54.666882 4.104475
15.04608 25.908855 -47.752415
33.203892 -27.193012 36.556999
1.5141882 -18.387648 53.281612
5.2872019 -47.169353 30.386414
54.360909 -4.5470028 14.162384
-0.83785838 -44.583908 34.472187
56.257317 -0.021727068 3.8179667
21.656521 -17.716293 48.942989
16.887911 49.118721 21.848211
-29.652737 -1.4417571 47.910316
47.285374 23.818913 19.346642
51.819702 13.584265 17.500071
-10.442357 -42.243336 -35.80241
30.394346 21.919744 42.128712
-32.946011 -36.734886 27.246731
-13.624339 -14.139546 -52.837971
-37.124897 23.503792 -35.289398
31.078499 37.167076 -28.790634
12.584882 53.048229 14.307837
8.3886175 41.564049 37.101215
31.443348 46.792229 0.68029958
39.277233 14.916483 -37.570599
4.9384041 -38.965328 40.446754
-16.708944 -38.753262 37.372776
14.822888 -31.20756 -44.5303
-34.555969 43.001007 -11.612529
-35.071716 -36.106354 -25.374264
39.307156 38.353981 12.708359
-11.558431 -45.376572 -31.360706
4.3249769 -51.645287 22.154119
-6.5474191 -5.6705661 -55.696789
-54.994949 -5.8729315 10.79709
-13.896152 -54.095779 -7.5209889
47.216896 25.62524 17.124945
-53.748707 15.592636 -6.2729311
-1.0343686 48.145515 -29.343054
-45.818432 -11.754708 -30.674273
-14.365878 -49.530567 22.756441
21.999311 -50.171829 13.309882
8.7338943 33.058697 -44.812134
23.502451 -12.729057 -49.632549
21.316654 -30.148855 42.593216
-16.437435 -52.842644 -10.661144
3.2085123 18.133364 -53.274212
31.200523 4.5668373 -46.702843
-3.1133606 54.029148 15.799213
35.475506 40.442123 16.823784
-55.914055 -6.6600027 -2.2798197
28.838478 -6.4834733 -47.992653
28.943279 -33.222824 35.190292
-33.341019 -35.338531 28.605373
-20.776455 47.183636 -22.80838
21.765575 42.844791 29.451359
1.2661642 30.681702 -47.254639
30.254366 46.184921 -11.363099
-9.2150602 -33.508709 44.37727
-37.220108 25.657412 -33.694061
10.731223 25.856787 -48.90955
-29.586348 47.956955 0.96016359
41.89819 -31.686316 20.3972
1.6570445 -25.932791 -50.008629
20.427025 52.511971 1.2360311
30.667271 6.9520993 46.769573
-34.635078 27.257896 35.128338
26.458822 49.125267 7.9816117
50.125759 -2.1511989 -25.708572
-31.463194 43.063232 -18.230936
-32.025135 46.385681 -0.48714471
-29.931387 36.030933 -31.37545
-10.018106 -50.780132 -22.332075
19.058506 -48.587456 21.255184
-44.499283 -18.321085 29.393253
-6.4845734 44.758179 33.60828
-12.518041 -50.086681 22.64193
5.6003699 -56.064674 -1.9234266
1.6284163 27.266729 -49.295143
-56.047325 -5.0836744 -3.0699062
4.0371985 20.492319 -52.359558
-37.729942 -38.918301 -15.545264
-18.795202 -6.2877841 52.761295
10.654799 43.679417 34.004326
-45.687717 27.094349 -18.875797
37.200176 40.828533 11.346659
28.99361 -24.48418 -41.658871
11.305114 -40.428387 37.638893
20.979145 -51.155708 -10.935601
-17.985434 -52.249397 -11.090017
-54.884567 -12.581272 2.296608
28.321632 41.24773 -25.922632
-46.970707 24.930889 -18.663849
-48.215111 23.839838 -16.881746
53.031231 10.457302 15.971016
-35.532734 3.4522259 -43.608921
5.984735 -34.288136 -44.340775
-7.3526068 39.71072 39.298138
-2.1483305 8.3364267 55.692791
-0.4400194 -37.136395 -42.424408
-46.260303 -3.2666738 32.03957
-37.482594 40.840721 -10.227074
51.997807 11.546344 18.483919
-46.981361 10.565337 29.31222
-49.588917 -25.393019 -8.6197357
55.21175 -7.7277656 8.3806419
45.043045 -10.295154 -32.289028
-27.059942 49.372158 2.5351045
29.2383 48.201729 1.2110127
8.3834553 36.659782 41.976532
-40.947037 -37.997913 7.3890877
39.717285 34.594048 20.047457
-53.057152 17.4543 7.663506
-18.459145 36.384552 38.829739
-32.47477 22.11673 40.417606
-32.048775 -31.42765 -34.124702
-47.076504 -9.7565241 -29.422913
-20.043222 -27.682049 44.843559
-30.691927 43.885384 17.570505
12.027918 51.436283 -19.698729
49.701759 -0.27030984 -26.55687
-7.192018 32.933422 45.181465
29.749107 25.718136 40.38591
-39.381447 39.42289 8.5907774
-19.632404 -52.592037 -4.9339137
39.575356 37.78418 13.590968
-9.3315067 53.370789 15.551087
-32.466167 45.187977 -8.9556704
23.134287 32.545128 39.834335
-42.693642 -33.52634 15.123198
55.194149 -9.6298513 6.0455565
45.226585 25.938671 -21.401543
-31.65752 -40.113995 23.845322
-14.70564 -31.828272 44.146294
34.139984 -38.032406 23.729755
-44.561909 -28.114626 -20.043114
31.096758 21.22624 41.953701
-42.081379 -37.093678 5.3714561
31.827812 46.402462 -3.3027647
-52.332111 11.494366 17.500374
42.365002 -6.0128083 36.655262
-40.794472 37.702374 9.5630445
40.599743 35.949093 -15.358348
-39.183796 -16.652342 -36.918076
2.9605603 11.487495 -55.094521
-30.02704 -47.59618 -3.0278773
5.9913273 -18.120356 -53.04073
-34.831429 24.264938 37.070396
16.073414 -14.187992 52.147549
32.802998 -39.771378 22.802258
40.139347 -36.184418 15.96514
-1.5643712 -47.362198 -30.546507
-51.882183 21.89756 2.0741916
-50.696983 -22.765669 -9.4286451
45.511734 -33.154423 2.8144681
-49.394501 -25.249168 -10.02036
-37.191998 -35.948502 -22.422085
-26.164719 13.133402 48.17025
-54.3839 -13.131914 -6.9126382
23.23756 50.130569 -11.158916
5.1315284 -36.74791 42.459507
-38.655006 0.059062816 41.022709
9.5813837 48.52219 27.020365
45.103657 -33.099567 6.8723989
-35.253056 26.308905 -35.242527
24.050497 -37.318516 34.74691
28.3153 25.229067 -41.718758
53.827595 -1.9250194 -16.553905
-51.098469 -16.357325 17.234747
-52.942814 -4.7382612 -18.75725
6.784162 -33.807091 44.622974
-41.078323 -30.407991 -23.768147
-36.694134 41.393726 -10.882254
-50.509327 -24.934797 -1.3314884
-2.107425 48.987621 -27.801044
-23.133371 -47.996578 18.357029
6.6682873 48.294613 -28.272768
13.777256 52.176548 16.263088
-30.695148 -40.618633 24.17778
-11.260419 39.635895 38.45433
41.533714 22.140715 31.040583
-0.73657626 53.270355 -18.448696
28.828974 -22.011282 43.162304
-24.192968 26.359173 43.591969
40.24052 -38.233345 -9.8498802
45.89563 13.834848 29.635569
55.035469 0.14526524 12.214801
33.170849 45.283699 -5.1137018
24.565187 -19.774916 46.75996
-43.227066 -10.486163 -34.615788
-27.013943 19.652798 45.395695
-26.985043 2.9639988 49.404224
41.518021 8.4597635 37.207298
33.094444 -16.067493 -42.710228
-28.716888 1.48941 -48.470238
-40.830734 -36.083641 14.555903
-8.8827534 -16.918941 53.017967
0.4597066 56.255531 3.5510259
-31.157898 -24.791389 39.907768
-23.817656 -35.134853 37.110516
46.713108 -18.915697 25.124298
-5.5453272 54.604725 12.833873
-5.7579551 -18.742807 -52.847595
34.371143 -38.73304 -22.263319
-23.079453 9.8829298 -50.467632
-46.257423 2.2685118 -32.128342
17.855017 -45.216179 28.52107
4.150723 28.40604 48.530365
9.7354918 55.388744 -3.7883878
-12.540745 -35.7313 41.778206
-6.3549085 -43.760765 -34.935879
10.051925 27.95405 47.90181
28.966194 -9.6853466 47.369141
-22.212938 -29.47867 -42.578072
-42.508961 20.053629 31.119652
-29.983883 41.835136 22.976814
-2.724205 27.913496 -48.935013
-7.3050857 23.968092 50.486725
12.442764 12.212563 -53.606987
15.007197 -49.954742 -21.346258
15.583995 -50.151154 -20.438345
-50.102123 4.7941256 -25.38892
-32.736683 -4.9320107 -45.603912
36.597652 25.028795 34.804043
-3.1727316 -50.152916 -25.501247
-12.358651 -54.99139 0.77354807
55.404869 -3.8849828 -9.4747
-55.789337 -5.4561224 -5.6020694
43.516304 -2.3398466 35.704681
-54.570751 11.323717 -8.0592871
47.897358 -20.219427 21.769253
38.957527 -18.893021 -36.105648
19.678829 45.81797 -26.273985
21.810305 -33.727478 -39.55101
-26.58482 -34.268707 -35.977581
-51.349838 16.564846 -16.177694
9.6487913 49.851978 -24.460823
-25.997684 -23.533493 44.131039
-33.441319 -39.355396 -22.588823
49.169899 -27.291872 -3.7411771
-44.261646 18.917234 29.317507
6.0165086 -10.844309 -54.984806
23.617422 17.370594 48.130932
-23.112547 -16.235296 48.772659
6.6298671 -52.718685 18.818064
31.381451 -43.949375 16.212378
-1.5571755 -47.853466 29.709658
41.947178 -35.955254 11.239224
41.872002 35.699524 -12.218564
16.378204 -34.787445 41.233997
6.3643837 55.499714 -7.5692024
-1.8208046 12.735785 -54.896103
-32.865173 24.938171 38.383656
25.391106 -39.625362 31.052822
-11.040786 36.398464 -41.569912
-2.4271398 -51.741417 22.232159
-38.645046 -22.804342 -34.089592
55.783901 3.5127983 -7.1949396
-31.751665 -22.045792 41.033119
5.6314697 53.581749 -16.632256
7.3454943 -48.939465 26.974432
-1.2288367 -19.125374 -53.008213
-26.751062 -43.695976 -23.511446
30.112131 -45.768818 -13.284214
-8.668191 -33.440117 44.52787
30.158962 19.295481 -43.51083
50.138756 -6.1531811 24.995924
40.105957 39.181828 5.8131814
-6.0286179 -51.634384 21.742712
-31.641319 -31.322645 -34.56916
15.924907 -50.882839 18.266077
-1.1581715 -56.19392 -4.2442675
20.858643 6.9233932 -51.90134
-3.9959624 55.29311 10.115417
-34.99308 16.242893 41.10273
-52.947777 19.337093 -0.42162043
-24.362898 -40.670132 -30.511614
32.387184 8.050869 -45.406219
-47.587399 14.75693 -26.370975
47.973289 23.905436 17.48358
18.285694 -26.95355 -46.037128
9.610898 52.668774 17.607807
29.957127 32.832771 -34.644627
-42.815559 -35.463844 -9.4750452
5.8699527 8.1626358 55.452045
-4.8737712 -49.182594 27.0669
39.76527 13.58287 37.566006
-3.3927376 18.851561 53.017971
-48.236889 18.470932 -22.541632
-29.508884 -47.606422 6.2209821
14.376884 10.033929 -53.566647
19.180969 20.192997 -49.016945
-52.113796 6.3142347 20.537682
-16.464172 -33.354767 42.339588
8.5947762 51.05172 22.317335
-56.241848 -3.5689862 -0.2416233
-40.779556 37.063717 11.904087
19.263454 47.674603 23.088202
55.831966 -1.8004682 -7.4545555
51.35891 14.382304 18.206995
-33.987587 -38.736805 -22.861084
27.344088 -20.660049 -44.758327
39.797146 -32.054638 -23.783972
-21.198454 48.12822 20.306976
3.1427634 -31.135611 -46.890167
-25.219496 -21.553125 45.585835
-13.879259 -27.474075 -47.240013
40.584904 -13.205594 36.81839
32.219841 -43.458767 -15.82783
-25.444601 20.723986 45.797165
-25.221544 -5.524745 -50.109177
18.84367 -31.619024 -42.677574
22.662796 -20.893486 47.199585
13.203494 -51.77845 -17.907614
-55.770809 8.2062902 -0.82090539
-7.7072492 -45.504559 32.348457
17.619324 23.210045 48.234936
15.004878 41.915367 -34.55706
31.022125 42.726192 19.658226
8.6157494 -33.556873 44.470421
30.431717 -5.4289565 -47.157051
24.413874 9.4588604 49.909412
-50.972446 23.860632 3.6391268
-1.9769356 12.782429 54.861092
-46.068737 -10.262256 -30.813412
18.484903 37.595978 -37.71833
-14.811997 -51.721958 16.788078
-6.8423314 -55.943775 -0.4033142
36.532486 -33.110806 27.257624
-36.854511 41.600815 9.4650803
26.685028 -34.024277 36.186474
-35.83234 -37.872246 21.425831
-46.378029 -16.942291 27.186449
-43.660236 -18.21343 30.65011
1.2516214 44.312752 34.801144
42.8587 -35.99065 -6.5852094
-17.468273 -31.303995 43.542782
-13.345429 26.231897 48.044323
-39.47694 6.1192708 39.751045
-42.566097 31.821049 18.800549
16.456444 -7.6353178 53.402386
-13.624539 12.897191 -53.15509
18.473148 32.292191 42.350437
53.90144 -0.8567971 -16.539482
28.76729 48.470882 -0.047597922
37.125793 -5.7886434 42.009739
-25.311932 -13.372842 -48.545578
39.766464 32.302261 -23.495045
29.46254 47.619278 6.4139414
-7.5433035 13.794991 54.123619
36.396442 40.729694 -13.887927
-19.599134 -45.545929 -26.81897
11.822477 38.828461 -39.117027
34.917797 -43.909069 5.5331192
34.216366 1.9634494 -44.738842
-48.938957 -1.7365849 -27.908035
43.882454 5.418045 34.952652
55.135242 -10.36086 5.5724349
-3.498816 7.5581069 55.75787
33.903763 -37.624569 -24.74872
44.352745 30.738953 16.305214
5.0453672 -47.930759 29.212284
46.410336 21.368185 -23.80525
-4.4796519 45.402241 -33.115601
-28.701595 33.385513 35.205212
44.245995 -2.0907407 34.793804
-2.3735402 -56.313705 -0.96696693
17.686073 -25.926559 -46.836781
-30.912634 -47.015747 3.4944508
-4.4994922 44.82951 33.841358
34.60878 -2.0544319 -44.442554
-45.120113 30.512648 14.491065
-12.60687 54.585758 6.1400242
-5.7233143 -51.007179 23.324686
-31.169683 42.422012 20.137377
32.94862 10.656213 -44.466736
1.8148538 -54.162045 -15.453138
45.888889 25.09901 -20.990057
36.746384 -16.318913 -39.517963
52.117191 4.2264709 21.025972
37.922203 18.457483 -37.376373
-19.072968 -38.567043 -36.408638
50.835499 24.337656 0.22127786
3.7746906 18.661448 -53.036331
3.072535 -51.609684 -22.457556
-7.860424 -27.082064 48.793407
42.373329 -18.182663 -32.47364
45.43874 -18.004175 -28.089808
43.019348 -24.214695 -27.232143
-20.620594 -51.97987 -7.3368888
-5.7670608 29.40465 -47.708065
-42.300674 -29.884459 -22.273697
-16.287874 16.374798 51.39933
-11.039578 46.563351 29.783409
-39.301674 32.674953 23.760723
12.280289 25.891403 48.562168
-36.690502 -36.738346 21.925915
-31.227871 -46.831989 -3.0348258
18.808458 23.655807 -47.598606
-33.351795 -21.633831 39.970196
39.674759 -36.198128 -17.083248
-26.059443 -24.399639 -43.604828
41.809326 -37.658226 -3.1257651
23.706371 -27.845055 42.919018
-52.157066 16.16922 -13.858576
22.701324 15.057634 -49.340542
-40.244183 39.460175 -0.0089730397
-49.762974 3.5914969 26.217432
39.978611 -13.839202 37.295143
16.239 -53.96241 -1.5827513
-50.30534 -9.0736418 23.729956
-51.210983 18.494123 -14.389374
-21.001715 -51.118614 -11.09147
-50.956959 -21.329592 11.096398
-11.698342 19.875114 -51.407509
-36.962479 41.299046 -10.24987
50.133057 16.436539 -19.815996
26.857729 48.597652 -9.8185234
24.929008 48.876251 12.982932
16.97641 -25.0278 -47.582062
13.429635 42.813107 -34.128883
-36.082249 -28.994749 32.21172
33.485649 21.777166 -39.753632
11.823668 23.65415 -49.77557
24.732712 -50.043732 -7.7264791
31.919544 -46.435101 -1.4771191
-4.3610015 18.055496 53.216785
54.166943 -13.105529 -8.4698277
-51.554539 21.594728 7.4414697
8.9371939 -12.2546 -54.29393
25.655891 42.976608 25.906618
18.45982 -6.7541108 -52.829491
-46.49099 25.584597 19.023397
9.8802862 11.669177 -54.280666
-25.896362 49.947018 3.6908798
-44.898766 -32.399479 -10.549256
0.68744463 44.242809 34.902508
18.976711 -47.451443 23.766714
3.9914808 53.710396 16.588202
-7.1538839 -53.926682 -14.845808
0.60133332 -56.292595 2.952611
27.109476 -4.5622101 -49.246887
37.206551 -38.686504 17.116592
34.145527 -43.926998 9.0362158
-22.504404 -41.44025 -30.877337
-44.93504 -19.968996 -27.535618
20.471197 -28.019484 -44.391708
-54.336887 -1.6814779 -14.808848
-18.655157 -16.686327 50.502773
47.374077 1.1409826 -30.523918
15.675986 12.068781 -52.790798
-30.025784 8.9629736 46.853878
10.221485 20.095936 -51.652641
-48.445763 -28.742971 0.60668755
7.5934043 48.651829 -27.417421
32.777683 19.561089 41.4888
12.456264 52.23341 -17.113781
-54.026176 11.115706 -11.68008
-13.555089 -33.514122 -43.249706
15.4174 -48.07943 -25.011894
-54.937542 -0.46856996 12.668939
25.666615 -35.452545 35.529484
39.354523 36.438942 -17.28965
-25.775213 30.037655 40.133411
-25.232971 -47.49469 16.839428
24.989035 33.374283 37.92247
-47.55497 -16.733156 -25.196814
-41.582855 -2.5286856 -37.97192
-7.2240624 -55.799019 -3.6117237
41.211727 6.3380232 -37.919235
49.840919 18.856285 18.40576
-21.292843 27.113535 -44.60535
-14.468575 -41.471725 35.32547
29.86014 -36.946091 30.330696
-40.433666 -37.543503 11.545962
-7.5068603 52.64447 18.675892
11.090211 -18.231113 -52.174622
-23.534273 -44.126766 -25.994301
-31.662844 -30.497496 -35.277321
-18.723831 9.2754412 52.342648
-38.662388 -3.6145854 -40.843357
-21.990761 -7.6937084 51.342205
-36.769779 19.091507 38.225731
-50.230076 25.4776 -1.9428235
-52.329212 20.580959 -3.8116987
-2.6888442 -4.5345211 -56.131218
51.490829 -22.708775 -2.3569758
-45.696896 -15.006094 -29.457058
55.912045 0.0037332089 7.1444807
24.374681 -10.011415 49.839298
-28.00466 17.527529 45.658409
-17.474493 -2.563658 53.510925
-8.3271875 -46.409027 30.884691
43.217316 -0.099148169 -36.177391
31.81712 4.9578624 -46.257267
-54.593273 3.9489431 -13.417154
30.86924 1.9046345 -47.107849
16.404364 24.541317 48.017242
-25.355364 11.375951 49.032909
-23.156775 4.754559 51.179516
-21.294624 39.031891 -34.681469
39.055355 -9.6158485 -39.480289
27.614342 -49.046482 2.9332108
55.064732 1.1693901 11.946706
-0.078627601 15.190344 54.314281
-22.995382 34.587971 -38.14888
55.406536 -10.149179 -1.0530672
5.5294671 55.006325 -10.941741
45.059116 31.752241 11.772103
-5.0150747 51.450947 22.459129
-33.788643 -7.175065 -44.534214
21.913311 43.464642 -28.445791
15.521942 -4.8283625 -53.982693
15.875669 47.845921 -25.206161
28.754797 -10.194417 47.400043
-23.177437 17.392408 48.323959
31.260303 -42.785835 -19.186262
1.724311 -13.829012 -54.617359
51.276123 18.073097 -14.87876
33.895908 41.013611 -18.584511
-2.9125335 -56.178974 -3.5191922
-29.340162 5.7556024 47.773525
-43.217911 34.281261 -11.579533
48.861355 -28.017031 -2.4147451
6.1352386 2.877193 55.966526
33.503315 45.303162 -2.515521
-5.1365294 22.086971 51.610767
25.67016 49.863335 -5.8346405
24.335665 -4.8782697 -50.628525
14.238294 20.700987 50.446491
25.346781 49.559315 8.9135723
55.655083 2.993664 8.3145924
-12.668824 -28.941187 46.707588
26.903727 49.37159 -3.9465768
52.560478 20.21397 -2.1506011
32.748783 -22.280779 40.107342
35.451801 -31.529802 -30.449404
-27.808067 -15.052515 46.653744
-56.348408 -1.3552659 -0.46199253
51.246712 23.414268 1.3825973
41.126675 -6.5597115 37.943501
-5.22962 39.926826 39.482025
-44.172066 -34.525978 5.5256233
-51.644348 -19.673059 -11.181726
-10.657266 47.980751 27.616022
9.3255405 46.235256 -30.853052
7.2433128 45.206539 32.819763
-14.774089 -45.596275 29.652969
-30.17354 -36.796936 -30.219522
11.350788 54.424305 9.3855925
-32.27401 -33.48671 -31.832321
9.5448256 23.415659 50.369934
14.62637 51.258579 -18.321409
35.394672 -34.605621 26.907328
36.369877 41.195984 -12.562225
7.0691695 42.333786 36.489105
-1.4927778 -9.9526587 -55.465744
2.6786053 54.039524 -15.814553
50.631367 -4.5425324 24.342609
42.467415 -37.030369 1.39508
33.584858 45.245735 -2.0253255
48.117947 10.176144 27.515728
35.538925 11.538173 -42.200291
14.108656 53.024666 12.946923
22.979486 -13.000232 -49.799534
17.409494 -17.35491 50.743233
-1.250574 -50.604053 24.752634
-19.556215 25.007862 46.571476
-27.809675 40.577244 27.480755
42.220772 -37.309902 0.90629619
0.72107565 -55.462585 -9.9768782
35.0634 -43.437977 7.7600269
-2.7125778 54.570663 13.842747
24.757271 41.99651 28.336287
-7.0499172 -54.055656 -14.355557
42.891014 -18.974098 -31.27931
17.360783 50.557209 -17.873209
-41.355656 -23.70067 30.095167
21.995056 -51.403969 7.1397076
18.009296 -52.183636 -11.312166
53.810436 16.395792 -3.6001589
29.290886 -35.40646 -32.650204
-52.552925 17.10919 -10.964499
-55.295937 10.902137 1.1288296
-9.1717663 -35.543709 42.766964
22.947659 -48.595829 16.996099
0.32693586 -9.7706928 55.499191
-36.199421 -36.24218 -23.542608
28.634304 14.216242 46.427673
2.117743 -36.612095 -42.825378
-2.3324199 49.714016 26.538935
1.5159529 16.746334 -53.802788
-51.710361 -7.9054232 -21.018997
-44.465202 16.72024 -30.340862
43.336594 -0.68108553 -36.023777
40.917561 -35.532078 15.477074
3.6153078 54.221058 14.935654
49.566956 -21.234859 -16.283554
10.720366 38.045101 -40.190502
37.743942 -11.065813 40.342991
-5.1230679 -32.449436 45.816334
-50.31126 -25.275564 -2.4638183
15.075403 -8.0125875 -53.715427
-53.208309 17.154036 -7.0653672
19.636011 14.033681 50.929298
10.636207 21.05311 51.192127
28.336769 -16.867147 -45.695152
-11.953399 14.998127 53.01144
-22.698938 -0.43753028 -51.58334
-29.248224 32.373852 -35.704021
22.118446 -29.261318 42.815033
-45.941811 -32.430477 -3.7790778
20.926357 30.171293 42.770992
15.298896 -23.147282 49.078697
14.417938 27.474529 47.045727
44.160446 -1.5499836 -34.970455
-8.5587778 41.449364 -37.220024
-42.467655 -25.998934 26.418015
5.9870758 -43.854557 -34.905193
47.988018 27.622845 10.606187
-26.08214 -42.320942 26.596432
7.3623843 -17.666269 53.016586
-6.6998129 -24.088411 -50.510548
53.234917 -18.32803 -2.0459802
47.862328 28.629871 -8.123806
-9.0373497 52.198372 -19.262064
-38.352455 -39.865437 10.742093
-29.261538 3.8253288 48.023006
6.2948818 54.542515 -12.716926
-8.1309175 -23.42363 -50.61554
-41.963902 -28.849754 -24.174368
15.301478 -47.418682 26.350235
50.008907 17.982529 18.871513
-13.144985 -18.145645 -51.75248
-6.397212 -27.42161 48.816319
-5.4742837 10.82058 -55.079346
-27.285059 -35.266659 34.48925
-29.036417 19.098881 44.391376
-29.211693 24.698189 -41.386932
-7.8368359 46.604691 30.716742
-34.145874 -43.234482 -12.030496
20.367599 30.43791 -42.85141
-45.534836 32.396183 -7.3633819
-39.644058 -40.040344 -1.4428504
26.794092 -49.164337 -6.3942337
3.5870657 -54.390297 14.296291
21.822226 -39.916355 33.268909
-3.3725595 -12.487411 -54.871643
34.829937 26.613426 35.434502
-30.974598 45.39735 12.488306
-42.040882 34.850807 13.940957
-10.207083 48.123466 -27.525318
51.13039 22.851517 -6.3925996
-46.153488 9.5132046 -30.923908
55.637104 -1.3736463 -8.9333725
30.311596 -14.786995 -45.166771
-0.99500895 29.950304 47.734943
8.525362 3.4341977 55.602352
-49.662258 25.722342 7.0078783
-39.486912 -40.066654 -3.6849658
52.869389 9.712328 16.912022
-52.973438 15.730383 11.158349
-16.371092 -1.3661702 -53.912739
13.785225 54.484756 -4.3332901
51.968708 19.362886 10.071336
13.306279 28.538242 -46.763409
36.606567 28.566469 31.947008
-16.892254 27.950655 45.932613
54.4697 11.975704 8.1131735
-23.787453 43.858952 -26.256861
-7.0460758 45.941177 31.875586
-42.640816 31.603201 19.019444
14.687038 -44.255405 -31.640884
43.101181 25.214767 -26.147812
-14.38061 41.181736 -35.688126
-19.818178 47.503426 22.966543
30.517155 43.558002 -18.675213
-29.457266 -45.87307 -14.338355
-35.673489 29.038584 -32.562492
-45.382896 -31.286449 -11.6997
-34.807152 40.327774 -18.457899
-40.850788 -8.4956417 37.875248
47.357403 0.047923837 30.575609
-32.418526 9.6593304 45.077118
37.042725 42.276463 -4.2040901
41.158669 34.339691 17.408167
40.785801 -23.674948 -30.911533
-51.91333 18.29812 12.246122
27.771496 -48.290062 -8.5290232
-42.201839 -24.592205 28.123465
22.076197 48.635818 18.042191
53.834187 10.164661 -13.252492
-32.691658 -8.8444777 45.058674
29.390606 -48.033581 -2.4000115
30.571672 35.956818 -30.839865
39.810612 9.0893536 38.829128
-10.108299 -21.072926 51.28463
4.2063017 55.747974 -7.0728784
-17.858356 -16.841835 -50.751289
-29.252205 -10.535508 -46.999458
-15.664489 -0.89255697 54.124126
-2.8096821 25.508486 -50.163601
48.04327 4.0143132 -29.195652
-31.547213 -30.934362 -34.992435
2.0401897 -0.9764939 -56.324631
-45.579544 30.749859 12.54178
-46.051258 26.600044 18.673891
54.820198 -8.8456707 9.6905947
-6.8152938 -29.050404 -47.801949
-13.256015 -54.292625 7.3594608
42.242012 26.376518 26.426859
9.5631733 42.834492 -35.354233
22.916224 -48.620605 -16.95112
-7.0584974 55.850101 2.6405325
-38.466732 -40.977139 -4.3273544
23.498341 6.3479366 50.8223
42.672478 -34.795536 12.072186
-31.640732 43.88451 -15.874149
0.57260072 -56.017208 6.1876988
-11.651661 49.166374 24.983419
-30.957748 44.794918 -14.606821
-37.083961 40.861446 11.446265
48.5793 26.834215 9.8435555
-27.358643 -27.06636 -41.181534
2.9591181 31.699602 -46.559647
45.146397 13.717858 -30.809589
-55.328876 -10.681435 -0.45980093
9.8343525 -6.9814172 -55.070095
-36.258984 -41.710697 -11.144277
6.3361545 41.215633 -37.919704
-24.268656 -39.499966 32.063202
22.028225 -50.542519 11.814299
-38.430294 36.262791 -19.600988
16.11113 -32.055969 43.503563
54.877869 9.7331285 -8.3676376
-17.002411 11.425386 -52.546326
-17.024096 -5.8670654 53.409531
30.737778 -44.086277 17.019953
5.5923567 18.521595 -52.928135
27.697878 22.501497 43.656841
44.255157 -30.334122 17.304012
11.797928 21.881821 50.610069
-1.0223334 -26.227917 49.878231
47.248207 29.793158 -7.5996103
49.220974 -14.296626 -23.461725
21.313046 -50.840481 11.772427
46.939968 25.591312 17.93083
-41.166595 -11.712883 36.681805
16.685312 49.056469 -22.161688
-22.621977 48.709549 -17.084597
3.6829264 27.661896 -48.958515
-53.770752 5.7927723 -15.852832
48.086838 -22.847641 -18.454924
-13.821653 -47.002533 27.839523
51.243725 -14.677646 18.174131
12.964013 50.986244 -20.218903
21.612143 28.130003 -43.814995
30.428144 -9.4657888 -46.489002
-30.101105 -43.552612 19.367331
41.367424 34.796291 -15.94159
-23.074749 50.299305 10.702029
6.663383 55.4151 7.7696867
-14.120298 49.847866 22.215757
31.720913 -46.409069 -4.126833
-21.601995 35.216526 -38.347317
19.086645 -48.82222 -20.704317
-25.089191 50.225212 4.9499698
-47.674976 22.175734 -20.287041
51.240875 16.206297 17.049978
15.88798 -49.406212 -21.980898
20.15089 -4.2257004 -52.495834
15.511692 38.249107 -38.389416
7.3017006 6.3927693 55.516281
42.733276 22.922234 28.704531
45.104267 13.095543 -31.153103
-5.1190448 53.703926 16.326153
36.626888 41.144173 12.011219
-46.84111 4.8349323 30.96212
5.1978025 54.419598 -13.689299
11.178514 -27.512608 -47.89909
-25.694626 12.698126 48.524712
-30.714624 -46.984352 5.0594683
-26.808697 25.313679 -42.668751
33.353256 -18.406147 -41.52182
20.019001 -24.194141 -46.807575
-40.951221 -21.1199 -32.443893
27.741726 46.72924 14.987562
48.182373 5.9705372 -28.627609
-31.586802 26.376732 -38.511772
26.993542 -45.954895 18.350138
28.718157 -48.37524 3.6319444
-42.612247 -7.2602119 -36.176697
-32.244267 41.950211 -19.477312
-49.794941 -10.738928 24.123737
-49.319229 23.599865 13.723762
21.227701 -4.044848 52.051392
51.029224 3.7246346 -23.63587
0.67676741 56.350307 0.47135812
-4.6611195 -54.82753 12.169747
-14.128856 54.30402 5.322557
15.901361 -44.48204 -30.723541
-51.807796 3.6319735 -21.878607
12.877279 54.064854 9.3797512
-10.03429 -24.337334 49.838467
-28.856567 40.186024 -27.034498
-45.437614 33.122635 4.1825433
-55.541409 7.466116 5.9892683
-19.786854 -46.335697 25.284441
-14.425635 -23.600924 49.09409
1.6960523 -48.624725 -28.474777
-7.201993 -27.375216 48.735527
44.616489 -14.672455 -31.200861
-25.438475 10.961156 -49.10001
-48.021191 -22.353079 19.208313
-28.426531 48.116127 7.3946643
-51.168068 22.97859 5.4312882
12.516911 -27.465368 -47.593693
-19.979973 11.529682 -51.436043
-13.510548 30.445911 45.462879
1.6472906 34.764126 -44.379482
13.671771 24.314987 48.971279
-19.051449 -13.864222 -51.232311
25.560013 31.312923 -39.329182
51.69783 -22.104435 -3.8056943
29.508905 -47.636925 -6.0202494
-0.86951977 -55.95319 -6.6334715
-2.2945716 7.3351169 -55.846893
-22.15053 51.638802 4.3407879
-49.504883 -26.614767 3.9062476
-49.001373 27.856861 0.82990503
-1.9730707 27.833698 48.992496
39.51717 23.184456 -32.814682
-7.3201475 -15.541824 53.678776
16.261223 27.428715 46.477779
25.569532 49.449181 -8.7523098
18.430462 -33.642181 41.321526
33.728874 28.596479 -34.939575
-50.319393 -25.094627 3.975347
9.4935808 -13.829728 53.809147
-3.5453544 -46.355431 -31.863995
45.823257 1.4108962 32.790165
-16.716587 -25.088043 47.623116
-1.972296 -48.348557 -28.877844
-50.191845 -23.092045 11.136599
-39.333305 40.302837 -2.5426929
25.446829 -43.979176 -24.375385
49.916416 25.945581 -3.4916909
-42.819214 -18.431677 -31.689941
53.310116 18.302582 0.782718
-35.629559 8.8303337 42.781773
7.923274 23.050911 -50.824055
-24.042053 -0.9691211 50.961533
34.022167 -23.185089 38.500263
41.911896 -5.3568745 37.279022
-5.2639146 3.1154308 56.025616
-16.538435 -11.519011 -52.634285
33.700176 39.243675 22.374048
52.97234 -15.551596 -11.158772
-2.7508667 -20.12306 -52.589458
5.6684628 51.82785 -21.410934
-2.0028906 41.311722 38.315304
-38.531673 -37.61953 16.650043
-49.965153 5.5455246 -25.512857
-47.911064 26.934025 -12.431571
26.023037 41.506741 -27.918842
2.6679049 -43.390175 -35.885715
27.560015 -40.960152 27.192263
32.226974 41.338703 -20.733133
-26.573147 42.870232 -25.199261
-56.122185 -5.0133986 1.6913611
-17.334393 -30.38913 44.209526
-21.159565 -25.215557 45.770477
39.437504 -27.788832 29.103308
-23.048044 13.519285 -49.652958
25.680834 -39.847973 30.548323
-5.4448323 42.733276 -36.33374
-4.2830172 -53.969131 -15.676714
54.069679 10.023625 -12.324049
-49.090057 -6.4194899 26.9137
0.23760483 12.017736 55.061661
-46.898243 27.225927 15.384085
20.89053 50.812321 12.749069
6.5335631 -39.174179 40.023949
-37.970119 32.352486 26.262545
-9.4467831 -15.754654 53.301125
-29.014759 47.967934 5.7231102
25.44525 -23.970879 -44.2034
54.840843 1.6018267 -12.906351
-8.5970764 -11.454895 54.514751
-52.527557 14.354465 -14.526818
-12.052222 -22.566727 -50.218731
31.752193 -3.3307357 46.443996
-49.368874 -7.8374019 -26.015642
-12.332061 54.12796 9.8563671
7.5665903 -22.952417 50.929367
-4.037158 -18.247568 -53.183945
-38.020714 -25.229763 33.11581
-13.442879 43.031742 -33.857288
0.046654455 19.498701 52.878906
-4.649931 31.182457 46.714573
55.48848 -7.0612431 -7.0463228
-42.963745 6.1557746 -35.97924
6.4209037 -20.788481 51.998898
-11.55617 24.917654 -49.179558
45.122261 19.088371 -27.843927
-9.5211763 -6.8280501 55.144703
12.064103 15.07271 -52.968102
-12.103802 -7.4227538 54.549538
-11.072639 54.650536 -8.2018433
41.504131 -36.061253 -12.450266
40.333164 16.439285 35.803669
18.357037 -53.295067 -0.96499461
52.821598 8.8409462 17.579399
-11.183866 -7.3476958 -54.770813
40.281109 32.834869 21.800062
-29.825602 20.116161 43.390804
39.123108 -37.049828 -16.585703
44.741035 -31.615515 -13.202626
21.938557 42.706078 -29.504482
-7.3926659 -1.2617698 -55.870132
15.171671 -13.599814 52.567928
-40.28714 -25.349783 30.241655
42.442314 -31.150085 20.139194
-27.469162 -39.583813 -29.262909
23.468596 -14.140742 49.269173
-24.484701 -40.056522 -31.187906
-23.612759 -51.162933 -0.84958285
-22.980061 -33.476414 39.112976
-52.115917 -11.546769 18.14777
31.853104 -43.826454 -15.539792
-27.874817 48.076256 -9.4437199
22.522749 51.527256 3.7084329
-32.005287 33.011745 32.619602
-36.447601 30.087835 -30.705004
-22.680706 50.555199 10.351933
39.273117 -10.936329 38.869598
-43.034885 36.372345 -1.9214797
-16.796539 -26.451206 46.84446
5.4836502 52.049957 -20.900097
44.489906 17.301128 29.950764
30.386103 -35.570904 31.479883
-22.408236 35.949768 37.12122
-21.978233 -48.198414 19.229677
-23.793444 7.4016109 50.556271
-50.311035 5.8208451 -24.735842
-40.021183 35.026512 18.656727
35.2756 31.408249 -30.739765
28.735067 0.37244913 -48.486923
44.115341 17.660494 30.29834
-35.673172 -22.525826 37.386738
36.609715 -38.632206 18.455988
33.007332 29.311653 -35.065079
-7.9603138 -29.261436 -47.50095
36.632381 -36.744251 -22.094131
34.708057 -37.535912 -23.754736
51.196682 1.7707211 23.476807
-3.0763059 -1.0127958 -56.297764
55.200214 -7.0716481 8.9889145
-27.102859 25.300625 -42.481693
-29.211975 -22.901712 42.417374
1.171417 50.011368 -26.018377
1.6212313 -55.661552 -8.6503496
-35.287971 0.61207563 43.935795
-54.731369 4.7011404 -12.397235
-13.455364 31.230402 44.969624
-16.964979 -45.137653 29.188541
53.09211 -3.5487556 18.464916
48.538128 5.6135764 28.078979
-24.950001 27.676186 -42.281952
5.7121148 -32.562042 -45.667263
-41.656017 -18.246899 33.348
-16.605005 14.999245 -51.724258
43.752167 32.304291 -14.759693
-20.455462 37.168552 37.091087
-2.0107684 -27.19095 -49.332386
-54.981045 -12.424502 0.62341714
42.266327 29.260155 23.122925
-45.124931 -32.193245 -10.249845
-47.495682 -11.9319 -27.882727
10.378334 43.364819 34.47897
24.323038 -19.696161 46.923336
-37.308994 41.52882 -7.8220448
51.558979 2.0136564 -22.733568
-20.294491 11.847016 -51.244629
-32.59491 19.936083 41.444103
-20.395714 8.2631426 51.88308
-23.063387 -50.075008 11.695084
-20.121447 32.988041 41.004578
4.4146724 -53.136696 -18.286972
49.694489 -25.399761 7.992671
-35.894344 -38.586327 -20.013634
-34.519836 -36.119923 -26.119471
-46.800919 -31.187683 -3.7319591
-29.327213 35.594139 -32.431904
-27.992172 32.132435 36.893356
47.956463 29.133465 5.449482
-2.779592 -36.077793 43.224209
-2.4217861 -1.0665033 -56.331417
-4.643682 35.964439 43.172363
-47.893822 -29.220804 5.5167322
-34.932224 30.891369 -31.701956
-41.005272 23.605112 30.637827
45.047829 24.398487 23.52969
12.091331 -32.637333 44.353878
-7.9916911 37.982883 -40.892181
-54.975452 3.2698586 -11.878996
18.771923 11.635228 51.895714
56.237682 0.9601931 3.7662072
40.575581 35.049805 -17.39163
-47.38184 -0.51203001 -30.550331
-9.7576447 53.868015 13.388157
9.9335794 -19.450375 -51.984447
-12.914391 -47.824894 26.932417
42.635624 -4.3451743 -36.627537
-39.1395 -32.49754 -24.322519
13.003924 -34.590763 -42.565777
-34.067089 -44.887127 -0.62636715
12.102912 -50.728893 21.360533
53.539345 11.652128 -13.253343
-13.285431 53.141567 13.34314
-14.578559 20.347683 -50.481873
-24.440138 -6.3212237 50.386261
25.323587 28.216152 41.710831
10.143426 55.082867 6.3266549
41.560486 36.965809 -9.1398039
51.496742 22.522091 -4.0857782
-18.502811 12.192821 -51.823143
38.979961 32.08709 -25.055872
-38.488403 37.323303 -17.473331
33.075024 -4.8975244 -45.404171
38.742798 34.575123 -21.967396
36.218834 -34.157417 -26.422642
-20.607414 41.893471 -31.616417
-11.058122 55.261822 -0.07530576
42.782928 31.165066 19.372377
-16.578646 -3.8357456 -53.729519
-19.828093 9.8499937 -51.832996
4.0153203 -52.05151 21.254221
36.849625 -34.93491 -24.493898
-12.163363 28.117088 -47.314854
8.2766676 47.119736 29.772989
-15.61831 -29.302017 45.566662
7.1103621 -49.000381 -26.939907
2.3401082 46.721916 -31.427374
11.487085 -44.886654 -32.092556
36.403744 -30.323282 -30.546606
10.828261 -22.436203 50.566277
52.300056 -7.5299239 -19.549969
48.540222 2.2782762 -28.546223
1.8863248 55.180714 11.421966
-22.927011 2.6055539 51.427738
33.631863 34.148609 -29.676899
-9.2662277 -10.638286 54.558254
-10.207476 11.486012 54.245316
-46.995796 -14.350973 -27.60709
0.74953562 -11.673259 55.142807
41.59663 -26.651716 27.072821
-24.417641 25.826738 -43.736027
-33.520771 -6.9408937 -44.776299
19.944569 51.802841 -9.889616
41.859818 9.1446676 36.629162
50.253948 18.017433 -18.161453
42.108974 36.582283 -8.0713692
-35.817352 8.0985804 42.796909
-23.990385 -48.98188 14.196581
-43.369915 -19.07328 -30.541809
6.069489 31.789797 46.153866
34.56953 -38.410561 22.502983
38.848881 3.8060257 40.657242
12.561063 0.58599806 -54.955566
3.697011 -8.6962881 -55.578045
-35.790913 43.452229 2.8244746
-55.885475 4.8936124 -5.0899348
-53.83601 16.115883 4.4805565
54.103977 15.66314 -2.0666296
-37.239525 -14.225631 -39.851196
-52.437645 9.3771305 -18.386488
-18.7283 34.471008 -40.471039
-30.152996 22.275339 42.130909
7.4436107 37.337265 -41.586117
-46.106945 28.856752 14.84448
-44.442257 25.700722 -23.238207
18.953127 -40.428627 34.386887
-3.7203679 40.023762 -39.492943
55.434498 -7.9656129 6.2071242
-36.625378 -3.1904163 -42.736046
-40.359665 32.825104 -21.685297
-14.500299 23.542295 49.138741
33.512989 27.848757 -35.748428
41.7957 -18.832684 -32.806362
-2.9943697 52.045353 -21.443468
6.7046027 -55.414394 -7.8323169
-12.964546 -54.411785 -6.9206858
47.381733 -23.473827 -19.465902
-0.76363862 -28.153572 48.845337
-33.456093 41.108479 -19.19976
-31.15192 42.592159 19.817728
-5.3461804 -47.954918 29.147818
38.192814 4.2886205 -41.218769
13.532514 -15.539376 -52.461975
-21.2232 15.631877 -49.796169
-47.984821 -29.151211 5.0582552
21.712124 -16.930447 49.193172
-38.8801 11.655243 39.114349
-27.020046 -28.661528 40.331203
-56.331409 1.169466 -0.87371552
14.159257 52.388626 15.232747
11.142482 -25.999865 48.756386
32.712898 16.668938 -42.748657
-55.66198 3.1898098 8.246911
-33.716576 37.094082 25.735847
55.477642 8.9607077 -4.2136688
-28.300407 -38.880035 29.424026
-5.9943967 37.696011 41.449532
-52.469368 -4.7533937 -20.025202
-9.0553093 30.818399 -46.286655
-32.802906 -22.069902 40.170475
35.305859 -22.122509 -37.966751
-28.124784 -15.038829 -46.468033
37.998711 39.888657 -12.026545
-55.561024 2.8047693 -8.7464933
10.418968 55.03318 6.3038187
7.9393177 -16.506855 -53.305557
46.384636 -31.677757 4.7891479
4.1087651 -18.597519 53.048897
-42.11338 -36.804695 -7.0040979
-18.931829 -12.025053 -51.708485
27.741045 -16.751141 -46.112473
46.037926 -31.873905 6.6132765
17.563509 25.530989 47.100037
-34.937248 -26.862082 -35.126926
33.180103 -31.115524 -33.278442
50.315098 -2.9329574 -25.23987
-43.937935 32.673489 13.381872
-35.53653 -4.7420378 43.49115
38.350613 -1.551566 -41.275726
32.256989 -24.435213 39.245609
-55.918247 -2.3649006 6.6291256
-16.19796 7.9757466 53.393375
-17.524689 -47.995026 23.810545
4.3677745 -11.247569 55.052414
44.355667 -10.092882 33.264488
11.734389 46.703972 -29.271395
16.45812 21.792904 -49.323441
-51.393059 -7.0395813 -22.020315
11.005347 -51.62064 -19.760883
-4.1662731 -25.295706 50.194492
53.295292 6.7080145 -17.087921
35.952503 -0.36664486 -43.420681
21.144606 47.629269 -21.469713
11.922487 -54.087894 10.492809
-49.836643 25.821882 -5.2242026
-4.9130306 47.197605 -30.42944
27.83551 -46.229752 -16.276972
-37.163528 -38.643265 -17.440176
-5.9033365 -9.7978315 55.188755
-46.073318 -19.466955 -25.979673
-27.588419 -25.860826 -41.785252
38.980072 23.283556 33.408752
-35.784016 14.045303 41.23267
52.687122 -19.749987 -3.3571923
53.047035 -15.366251 11.106081
-37.778027 -41.798882 1.7782984
23.740828 -3.233983 51.025536
20.430183 -38.475567 35.799652
2.1913044 14.340369 -54.480267
-33.029209 43.439163 -14.090943
-17.633373 -16.790548 -50.850819
-31.721191 13.453507 -44.604721
39.38678 6.9206347 39.716335
-23.831516 -40.514126 -31.120274
29.199434 33.847721 34.324215
27.380518 16.37117 -46.453327
13.405123 45.616699 30.228806
-32.996727 24.538424 38.528431
44.303768 29.503731 18.572243
-10.080969 -49.262436 -25.474924
-13.482116 35.417847 41.72501
23.901556 50.34539 8.4016552
-28.507185 -48.190605 -6.50034
15.355885 -30.169216 -45.084778
17.543661 21.3979 49.089798
30.669313 -23.405588 41.123245
3.2154806 -22.336557 -51.64336
29.436447 -27.085609 39.725842
40.671104 -6.4754672 38.455376
40.156075 39.049541 -6.3638463
-56.339401 -0.15898971 1.6475738
-23.608225 -35.964264 -36.406723
-43.072136 18.503197 31.325693
-5.4040985 22.18791 51.537708
19.258938 52.762375 4.6860118
-55.772099 -8.1340427 0.35371241
